0.569409 -0.72797 0.381883 -0.819929 -0.536328 0.200176
-0.029804 -0.995736 0.087296 0.697566 -0.083271 -0.711665
-0.197258 0.947777 -0.250614 0.273788 -0.192206 -0.942389
-0.724857 -0.591721 0.352773 0.104573 -0.600657 -0.792638
-0.714561 0.537482 -0.44779 -0.548329 -0.032806 0.835619
0.516445 -0.855378 0.04016 0.264066 0.11447 -0.957688
0.913219 0.326354 0.243976 -0.188093 0.868783 -0.45808
0.996535 0.049919 -0.06653 -0.022343 -0.609819 -0.792225
-0.896318 -0.442422 -0.029618 0.25583 -0.570539 0.780408
0.046526 0.498164 0.865834 0.636276 -0.682967 0.35876
-0.6194 0.782477 -0.063817 -0.747774 -0.56326 0.35153
-0.080937 0.859666 0.504406 0.949841 -0.086851 0.300433
0.357018 -0.925418 -0.127041 -0.300573 -0.242584 0.922393
-0.330926 0.903923 -0.270945 0.416829 0.397614 0.817408
0.717051 -0.220467 0.661236 0.350763 -0.705651 -0.615647
0.766426 0.544761 0.340332 -0.1013 0.625718 -0.773444
0.928731 -0.21972 -0.298635 -0.207302 0.360059 -0.909606
0.984811 -0.119297 -0.126155 0.093913 0.977111 -0.190877
0.983629 0.167137 -0.067369 0.055838 0.072759 0.995785
0.817202 0.31635 -0.48177 0.009611 -0.843262 -0.537417
-0.929668 0.262204 -0.258775 0.246804 -0.078206 -0.965904
0.222438 0.922382 0.315803 -0.968663 0.172373 0.178827
-0.890988 0.222321 -0.395871 0.444623 0.250713 -0.859914
-0.792662 0.601949 -0.096667 -0.405985 -0.402881 0.820282
0.836529 -0.507404 0.206788 -0.506777 -0.573005 0.644083
0.998584 -0.03235 0.042223 -0.051361 -0.792876 0.607214
-0.283958 0.830542 -0.479134 0.707307 0.51882 0.480151
-0.643431 -0.134036 0.753678 -0.753004 -0.06637 -0.65466
-0.45501 -0.800681 -0.389714 0.771849 -0.572869 0.275809
0.62055 0.280069 0.732448 -0.734836 0.533751 0.418481
-0.722408 -0.639066 -0.26405 0.352581 -0.011946 -0.935705
0.397973 -0.619529 0.67661 -0.907879 -0.371933 0.193446
0.101156 -0.536343 0.837916 -0.873741 -0.45066 -0.182982
-0.850165 0.393023 0.350362 0.470773 0.269432 0.840107
0.910997 0.276593 -0.305911 -0.254924 0.96074 0.109509
0.459346 0.721895 0.51756 -0.336695 -0.397683 0.853513
-0.584616 0.809887 -0.048013 0.630525 0.490791 0.601299
0.026109 0.829652 0.55767 -0.576051 -0.443438 0.686678
-0.915319 0.345009 -0.207752 -0.072104 -0.647912 -0.758296
-0.252841 0.873948 0.415073 0.710577 -0.12342 0.69271
0.864856 -0.457683 0.206277 -0.500219 -0.820415 0.276947
0.816227 -0.554828 0.161058 -0.557147 -0.829692 -0.034627
0.425034 -0.131 -0.895647 0.301575 -0.912447 0.276571
0.857062 0.196073 0.476445 0.114635 0.828999 -0.547375
0.656785 -0.690686 0.302632 -0.750054 -0.639764 0.167692
-0.09874 0.810618 0.577192 0.924682 -0.139591 0.354229
0.507213 -0.644419 -0.572239 0.297906 -0.491957 0.818064
-0.809198 -0.372014 0.454756 0.055444 -0.818903 -0.571247
-0.281051 0.746182 -0.603508 -0.852711 0.094373 0.513787
0.841402 0.254785 -0.476579 -0.490171 0.731137 -0.474522
-0.070314 0.988404 0.13459 -0.879954 -0.125008 0.458318
-0.978009 0.143237 -0.151593 -0.006379 -0.74706 -0.664725
-0.482127 0.174778 0.85849 -0.237739 -0.969231 0.06381
0.476571 -0.465025 0.746077 -0.84974 -0.461274 0.255279
-0.073244 0.502445 0.861501 0.541266 -0.705507 0.457483
-0.151457 0.243672 0.957959 -0.381003 -0.908644 0.17089
0.38603 -0.587723 0.711028 -0.455174 -0.791765 -0.407337
0.121661 0.972506 0.198573 -0.62488 -0.080393 0.776571
-0.174979 0.952945 -0.247545 0.940825 0.08772 -0.327342
0.714158 0.137771 0.686292 -0.208258 -0.894222 0.396226
-0.261808 0.677103 0.687742 0.873413 0.469404 -0.129654
-0.142739 0.978398 0.149543 0.041874 -0.144985 0.988547
0.689353 0.471533 0.549953 0.081021 0.704211 -0.705353
-0.015098 0.32296 0.946292 0.67885 -0.691541 0.246847
-0.689379 0.723856 0.028094 0.425198 0.372939 0.824696
-0.959294 -0.258181 0.114445 0.133582 -0.057781 0.989351
-0.213306 -0.034981 0.976359 -0.305894 -0.94672 -0.100747
0.142092 0.983552 -0.111514 0.989505 -0.144128 -0.010365
-0.697252 0.079578 0.712396 -0.162985 -0.985389 -0.049447
0.213529 0.189348 -0.958411 0.920261 -0.36827 0.132273
0.088374 0.282137 0.955295 -0.967538 -0.203651 0.149653
0.538005 0.360919 0.761766 0.83243 -0.369755 -0.412724
-0.898309 -0.126807 -0.420668 -0.19255 -0.746982 0.636351
0.462688 -0.828375 0.315776 0.208601 0.447926 0.869395
0.920842 0.060404 -0.38523 -0.065307 0.997865 0.000356
0.795418 0.082245 0.600456 -0.155109 -0.930128 0.332872
0.23778 0.917844 0.317843 -0.587772 -0.12455 0.799383
-0.320791 0.345251 0.881984 -0.132121 -0.938404 0.319282
-0.297129 0.797093 0.525697 0.843586 0.477056 -0.246538
-0.606844 -0.139925 -0.782408 0.256058 -0.966317 -0.025786
-0.48054 -0.369418 0.79537 -0.863558 0.041297 -0.502556
-0.167204 0.499619 0.849955 -0.166252 -0.864034 0.47519
-0.237713 0.784769 0.57239 0.667897 -0.295809 0.682943
0.245629 -0.718408 -0.650812 -0.85897 -0.472466 0.197347
-0.402397 0.319317 0.857971 -0.270909 -0.936755 0.22158
-0.484414 0.433008 0.760163 -0.037468 -0.878389 0.476476
-0.674772 0.095417 0.731832 -0.527706 -0.755612 -0.388044
0.65346 0.670616 -0.35109 0.260702 -0.634824 -0.727347
-0.283143 0.947075 -0.151261 0.80193 0.147278 -0.578979
0.545018 -0.432932 -0.718001 -0.401936 -0.886464 0.22941
-0.248706 -0.202097 -0.94726 0.950927 -0.236809 -0.199146
-0.623417 -0.195106 0.757155 -0.669775 -0.366384 -0.645882
-0.227521 0.972091 0.057206 0.581486 0.088506 0.808728
-0.131829 -0.713404 0.688241 0.531489 -0.636936 -0.55842
0.866861 -0.466375 0.176204 -0.365961 -0.355236 0.860163
-0.709551 0.398507 0.581144 -0.211578 -0.907156 0.363736
-0.320142 0.611265 -0.723785 -0.94057 -0.113713 0.319995
-0.181113 0.961745 -0.205536 0.117096 -0.186417 -0.975468
0.012094 0.87964 0.475486 -0.417032 -0.427753 0.801942
-0.10931 0.69377 -0.711853 -0.906356 0.224476 0.357951
0.796211 0.571784 0.197765 -0.435348 0.768441 -0.46901
0.482062 -0.703596 0.522082 -0.8685 -0.462265 0.178942
0.785916 0.115833 -0.607386 -0.604145 0.353068 -0.714389
0.172933 0.972925 -0.153334 -0.037272 0.162032 0.986081
0.345785 0.670199 0.65671 -0.93234 0.166556 0.320939
0.717957 -0.398601 -0.570662 0.04673 -0.790364 0.610853
0.942102 -0.096929 0.32101 -0.0117 -0.966229 -0.257416
0.082232 -0.005374 0.996599 -0.601479 -0.797602 0.045329
0.608982 -0.101472 0.786666 0.679683 -0.444479 -0.583497
0.454223 0.519086 -0.724038 -0.715518 -0.271633 -0.643621
-0.800167 0.589636 -0.109825 -0.257456 -0.172286 0.950807
0.587628 0.760236 0.277008 0.704394 -0.649112 0.2872
-0.288332 -0.357708 -0.888207 0.358226 -0.900538 0.246386
0.197233 -0.654839 0.729579 -0.744871 -0.583947 -0.322759
0.168841 0.438855 -0.882553 0.281236 -0.879635 -0.3836
0.851883 -0.149392 0.501972 -0.367479 -0.853414 0.369654
-0.046818 0.644161 -0.763456 0.52799 -0.632843 -0.566336
0.64808 -0.358518 0.671906 -0.732401 -0.535248 0.42083
0.582312 -0.410321 0.701819 -0.363968 -0.903514 -0.226252
-0.715998 -0.13255 -0.685403 -0.306099 -0.822786 0.478881
-0.984596 -0.011062 0.174494 -0.151323 0.553866 -0.81874
0.86549 -0.462159 -0.193225 0.265193 0.09549 0.959455
0.662127 0.1765 0.72831 -0.590074 -0.476302 0.651881
-0.342307 0.608632 -0.715816 -0.877643 0.064925 0.474897
-0.308594 0.654666 -0.69006 -0.943471 -0.118408 0.309585
0.769497 -0.55572 0.31472 -0.631157 -0.586454 0.507655
-0.551005 -0.039587 0.833563 -0.55771 -0.725572 -0.403118
-0.979471 0.190709 -0.065324 0.012956 -0.263826 -0.964483
0.799419 0.450448 0.397525 -0.259491 0.855673 -0.447759
-0.884002 0.410735 0.223242 -0.350061 -0.265105 -0.89843
0.195874 -0.36809 0.908924 -0.414234 0.809067 0.416918
-0.195078 -0.980779 -0.004005 0.337409 -0.063275 -0.939229
-0.44297 0.456837 0.771412 -0.301522 -0.886228 0.351688
-0.728538 -0.170888 0.663348 -0.672038 -0.009231 -0.74046
-0.775498 -0.481382 -0.408502 -0.229893 0.817916 -0.527412
0.054338 -0.351379 0.934656 -0.89874 -0.425087 -0.107559
0.964036 -0.092589 0.24912 -0.263283 -0.204807 0.942727
-0.464807 0.885212 -0.018794 0.542725 0.268074 -0.795981
-0.940746 0.295656 -0.166088 -0.306172 -0.529949 0.790831
-0.956019 0.287036 0.060318 -0.28152 -0.955702 0.085907
-0.716416 0.39817 -0.572894 -0.631112 -0.719891 0.288884
-0.17396 0.966142 0.190546 0.629915 -0.039558 0.775656
0.817202 0.31635 -0.48177 0.009611 -0.843262 -0.537417
0.986234 0.007072 0.165206 -0.136243 -0.531417 0.836083
-0.340454 0.300609 -0.890913 0.737696 -0.502107 -0.451323
0.741835 0.268149 0.614635 0.126343 0.844265 -0.520821
-0.45301 0.053287 -0.889912 -0.418317 -0.894205 0.1594
0.436513 -0.556882 0.706639 -0.896649 -0.204669 0.392595
0.742359 0.156852 0.651382 -0.240207 -0.845273 0.477297
-0.58996 0.805668 0.053353 -0.26944 -0.258729 0.92761
0.84267 -0.482359 -0.239241 0.389291 0.238853 0.889608
-0.318282 0.887916 0.332117 0.913282 0.381132 -0.143719
0.818587 0.545849 0.178782 -0.434299 0.791901 -0.429275
-0.028851 -0.783625 0.620563 0.670581 -0.475564 -0.56935
0.768208 -0.602321 0.216946 -0.515065 -0.380227 0.768203
-0.974517 -0.032971 -0.221878 -0.183127 -0.454289 0.871829
-0.918196 -0.217552 -0.33104 -0.148447 0.963767 -0.221623
0.724957 -0.644206 0.243793 -0.665792 -0.564682 0.487705
0.824543 -0.561698 0.068008 -0.276536 -0.295212 0.914537
0.00108 0.93015 0.367178 -0.573935 -0.300106 0.761929
0.283313 -0.765982 0.577066 -0.926198 -0.374629 -0.042551
0.541833 0.759432 -0.360111 0.215606 0.288529 0.93288
-0.208608 0.79045 -0.575911 -0.883132 -0.405252 -0.236327
-0.881992 0.139457 0.450157 -0.429307 -0.631763 -0.645423
-0.84613 0.22651 0.482448 -0.166109 -0.972185 0.165116
0.134845 0.233548 0.96295 0.865606 -0.500725 0.000229
-0.487288 0.784298 -0.383964 -0.870338 -0.472025 0.14037
-0.027815 -0.539635 0.84144 -0.790818 -0.502993 -0.348722
-0.965965 0.0847 -0.244413 0.140172 -0.622722 -0.769785
-0.698092 -0.182414 0.692381 -0.284438 -0.816774 -0.50197
-0.133811 0.958843 -0.250431 0.208872 0.274315 0.938682
0.041497 0.968342 -0.246156 -0.951677 0.113339 0.285423
0.711605 0.572744 -0.406919 -0.266037 0.755711 0.598437
0.971901 -0.203564 0.118196 -0.148372 -0.139962 0.978978
-0.269076 0.549938 0.790674 -0.721627 -0.658814 0.212647
-0.568279 -0.15794 0.807536 -0.820978 0.042927 -0.569344
-0.968045 0.238565 0.077288 -0.235645 -0.970793 0.045063
-0.675732 0.433367 -0.596306 0.304703 0.900803 0.309373
0.932434 0.361318 -0.003871 0.201916 -0.512129 0.834838
-0.929348 0.028719 -0.368087 -0.287666 -0.681264 0.673148
0.6394 0.020271 0.768607 -0.664369 -0.488612 0.565572
-0.136738 0.886103 0.44286 -0.602327 -0.429294 0.672985
-0.871614 -0.324482 0.367424 -0.353202 -0.104028 -0.929745
-0.843466 0.206414 0.495941 -0.535773 -0.256421 -0.804485
-0.460866 0.391791 0.796306 -0.849401 -0.454711 -0.267872
-0.639512 0.612081 -0.465166 0.041919 -0.576407 -0.816086
0.027581 0.842011 0.538754 0.822301 -0.325564 0.466722
0.828269 -0.184203 0.529189 -0.539363 -0.006149 0.842052
-0.880006 -0.473795 -0.033307 -0.052889 0.028061 0.998207
0.175117 -0.32836 -0.928177 -0.980811 0.023873 -0.193493
0.521587 -0.742779 -0.419792 -0.145743 -0.562357 0.813949
-0.449284 0.739354 -0.501497 -0.793495 -0.072317 0.604264
-0.052869 0.998601 -0.000802 -0.426765 -0.021868 0.904098
0.992613 0.016199 -0.120236 -0.09452 0.724565 -0.682695
0.603591 -0.22796 -0.76401 0.476839 0.871199 0.116776
0.755044 0.629139 -0.184642 -0.006219 -0.274722 -0.961504
-0.902641 0.376495 -0.208544 -0.260878 -0.863992 -0.430653
-0.564164 -0.394961 0.725069 -0.81238 0.422415 -0.402001
-0.646554 -0.345156 0.680319 -0.232886 -0.759917 -0.606868
0.595188 -0.615387 0.516769 -0.781046 -0.291767 0.552122
0.347851 0.721703 0.598451 0.859986 0.008603 -0.510244
-0.385123 -0.216252 0.897171 -0.465433 -0.793954 -0.391166
-0.888503 -0.438744 -0.134414 0.029877 -0.347614 0.937162
-0.894929 0.068541 0.440911 -0.147331 -0.978103 -0.146993
0.644597 0.721242 -0.253582 0.753575 -0.655329 0.051664
0.588131 -0.775613 0.229185 -0.800653 -0.5984 0.029504
-0.117876 0.868499 0.481471 0.864343 -0.148971 0.480333
-0.290359 0.870813 -0.396706 0.208536 -0.347019 -0.91438
0.580525 -0.444524 0.682194 -0.404164 -0.884641 -0.232509
-0.160444 -0.126287 0.978933 -0.986271 -0.018746 -0.164065
0.414783 0.156707 -0.896325 -0.787843 -0.430999 -0.439935
0.254071 0.814127 0.522154 0.802363 -0.478871 0.356226
-0.859372 0.389858 -0.330893 -0.048537 -0.706366 -0.706181
-0.396281 0.554278 0.731941 -0.265387 -0.832331 0.486616
0.347223 0.905666 0.243319 0.647536 -0.043868 -0.760771
-0.121825 0.887429 0.444555 -0.627443 -0.415901 0.658287
-0.496432 0.283838 0.82036 -0.256622 -0.950781 0.173671
0.176156 -0.025208 0.98404 -0.372182 -0.927169 0.042875
0.534773 -0.606861 0.587994 -0.824187 -0.52808 0.204564
0.715659 -0.62681 0.308127 -0.615647 -0.35776 0.702131
0.359348 -0.4082 0.839191 -0.756829 -0.653583 0.006164
0.494346 0.713467 -0.496575 -0.811613 0.174258 -0.5576
0.358424 -0.32779 0.87412 -0.780254 -0.619282 0.087708
0.801848 -0.212119 0.55861 -0.597317 -0.25969 0.758797
-0.857514 0.350334 0.376745 0.074862 -0.639542 0.765103
0.943748 -0.107826 0.31259 -0.226563 0.477704 0.848804
0.434978 0.15592 -0.886839 -0.898749 0.135532 -0.416991
0.958568 0.207265 0.195418 0.127272 0.302122 -0.944735
-0.416979 0.872163 -0.255853 0.323359 0.405423 0.855027
-0.550635 0.522098 -0.651318 -0.186363 -0.837454 -0.51375
0.470751 0.116603 -0.874527 0.615926 -0.753137 0.23113
0.021137 0.959792 0.279915 0.549361 -0.245072 0.798838
-0.418171 0.353944 -0.836574 -0.342661 -0.914389 -0.215583
-0.454309 0.890679 0.017121 -0.629622 -0.334629 0.701141
0.709151 0.649201 0.275033 0.07656 -0.458684 0.885295
0.76074 -0.26272 -0.593509 -0.344765 0.611186 -0.712453
0.662175 -0.321891 -0.676691 -0.644698 0.215573 -0.733412
0.074967 -0.98852 -0.131181 0.753401 -0.030034 0.656875
0.063794 0.400728 -0.913973 0.881154 -0.45257 -0.136924
-0.004256 0.667057 -0.744995 0.624971 -0.579807 -0.52272
0.572054 0.154699 -0.805495 -0.786649 -0.17459 -0.5922
-0.929348 0.028719 -0.368087 -0.287666 -0.681264 0.673148
-0.494629 0.275759 -0.824196 -0.813942 -0.479453 0.32806
-0.919186 0.269647 0.287032 0.068921 -0.607447 0.791364
-0.958142 -0.180667 0.222085 -0.285677 0.552587 -0.782966
-0.404773 0.912432 -0.060231 0.510664 0.280197 0.812842
-0.832584 0.378953 0.403977 0.092161 -0.624392 0.775655
-0.601472 -0.33669 0.724481 -0.128718 -0.854165 -0.503821
0.887393 0.450251 -0.099031 0.454471 -0.890439 0.023961
0.361696 0.355486 0.861862 -0.506766 0.850918 -0.138299
-0.791168 0.015432 0.611403 -0.608648 -0.117936 -0.784626
-0.781703 -0.092598 0.616738 0.62028 -0.01276 0.784277
-0.286935 0.02925 0.957503 0.449094 -0.878781 0.161425
0.836529 -0.507404 0.206788 -0.506777 -0.573005 0.644083
0.506886 -0.679076 0.530964 -0.860833 -0.430984 0.270591
0.429461 -0.640386 0.636765 -0.816863 -0.576128 -0.028478
0.193917 0.072502 0.978335 -0.573221 0.817683 0.053022
0.250744 0.658824 0.709279 -0.087031 -0.714378 0.694327
0.360433 -0.105922 0.926752 -0.699719 -0.687705 0.193535
-0.047203 0.941906 0.332544 -0.051541 -0.334769 0.94089
0.086681 0.730229 -0.677681 0.586674 -0.587196 -0.557687
0.998584 -0.03235 0.042223 -0.051361 -0.792876 0.607214
-0.169844 0.907493 0.384199 0.555798 -0.233731 0.797783
0.007885 0.5757 -0.817623 0.117367 0.811464 0.572496
0.897123 0.432349 0.090799 0.401633 -0.712574 -0.575265
0.981592 -0.010386 -0.190706 -0.190127 -0.147918 -0.970552
0.104351 -0.925822 -0.36327 0.248629 0.377951 -0.891816
0.693222 -0.642015 -0.327506 0.268373 -0.191792 0.94403
-0.128918 -0.87131 -0.473497 -0.066434 -0.46882 0.880792
-0.095322 -0.970892 0.219734 0.274283 -0.237812 -0.93178
0.681019 -0.578168 0.449372 -0.178792 0.463812 0.867705
-0.350366 0.839998 0.414301 0.912155 0.205594 0.354548
0.49757 -0.287848 -0.818271 -0.490247 -0.871542 0.00848
-0.604554 0.792143 -0.083813 0.756606 0.538133 -0.371431
0.072605 0.57924 -0.811917 0.729593 -0.585889 -0.352743
0.702725 -0.691107 0.168964 -0.443456 -0.239768 0.863631
0.351723 -0.469652 0.809765 -0.405088 -0.85621 -0.320639
0.238019 0.969893 -0.051528 0.118767 -0.08172 -0.989554
-0.306526 0.168408 0.936847 0.660999 -0.670552 0.336811
0.303872 -0.946262 0.110682 -0.935192 -0.274086 0.224258
0.958675 -0.006229 -0.284436 0.068265 -0.965517 0.25123
0.801418 -0.293091 0.52137 0.003174 -0.869607 -0.493735
0.806989 -0.342661 -0.480991 -0.337793 0.400251 -0.851877
0.790642 -0.004309 0.612264 0.518927 0.535446 -0.666343
0.580318 -0.250517 -0.774901 0.704647 -0.322582 0.631992
0.866097 -0.341146 0.36537 -0.47536 -0.335992 0.813106
0.922465 0.219722 -0.317459 -0.369969 0.268026 -0.889542
0.969468 0.236409 0.065145 -0.111062 0.186452 0.976167
0.252394 -0.349876 0.902155 -0.746063 -0.664083 -0.048822
0.994532 -0.070695 0.07687 0.035691 0.921807 0.386003
0.901123 0.092563 -0.423568 -0.360965 -0.381007 -0.851198
-0.10054 0.674675 0.731236 0.93329 -0.190723 0.304292
0.489888 0.618601 -0.614283 0.278889 -0.778801 -0.561863
0.402921 -0.852493 0.333032 0.755247 0.10416 -0.647111
-0.039549 0.858426 0.511411 -0.543576 -0.447936 0.709844
0.180885 -0.103841 0.978007 -0.946904 -0.287141 0.144645
0.742867 -0.618759 0.255509 -0.627363 -0.510294 0.58823
0.884956 -0.279469 -0.372491 -0.371447 -0.90606 -0.202686
0.905986 -0.275492 0.321394 -0.348999 -0.05644 0.935422
0.593751 -0.730734 0.336878 -0.801242 -0.575409 0.164056
0.829008 -0.2292 0.510111 -0.002411 -0.913612 -0.40658
-0.44297 0.456837 0.771412 -0.301522 -0.886228 0.351688
-0.461988 0.878962 -0.118291 0.402822 0.326786 0.854954
0.121602 0.017643 0.992423 -0.223314 -0.973723 0.044673
-0.720498 0.416312 -0.554587 0.297502 -0.536838 -0.789492
-0.292981 0.895426 0.335221 -0.6589 -0.443148 0.607841
-0.277231 -0.955629 0.099582 0.822282 -0.289596 -0.489885
-0.972871 0.135746 -0.187339 -0.231072 -0.609855 0.758078
-0.629612 0.750641 -0.200315 0.77638 0.598396 -0.19788
0.414763 0.385938 0.824029 -0.025466 -0.900318 0.434487
0.463014 0.168019 -0.87028 -0.875055 0.242907 -0.418658
0.694622 0.71846 -0.036258 0.224799 -0.168911 0.959653
-0.362525 -0.518954 0.774121 -0.58017 -0.524387 -0.623235
0.922302 0.091845 -0.375398 -0.249228 0.883735 -0.396103
0.436902 -0.417697 0.796646 -0.588384 -0.802604 -0.098135
0.468916 0.282756 0.836759 0.808285 0.244556 -0.5356
-0.934322 -0.338196 0.112544 0.212282 -0.274352 0.937906
0.914788 0.254362 -0.313789 0.19612 0.399437 0.895537
0.106844 0.085827 0.990564 -0.17039 -0.979948 0.103286
0.538118 0.008036 -0.842831 -0.825841 -0.19496 -0.529129
-0.908209 0.404941 -0.105732 -0.292576 -0.794958 -0.531451
0.854528 -0.450406 0.258685 -0.091593 0.359563 0.928615
0.481939 -0.837847 0.256413 0.326377 0.443239 0.834876
0.77656 -0.090866 -0.623456 -0.510219 -0.671247 -0.537684
0.687272 -0.633657 0.355156 -0.6218 -0.260433 0.738607
-0.126536 0.981212 -0.145642 0.114728 0.160313 0.980377
-0.099861 0.749731 0.654165 -0.332303 -0.644832 0.688307
0.720809 -0.483857 -0.496303 -0.647649 -0.725264 -0.233543
0.902711 0.22973 0.363782 -0.211853 -0.498579 0.840558
-0.666844 0.128614 0.734015 -0.44232 -0.861026 -0.250974
-0.856047 -0.231758 0.462028 -0.513383 0.485246 -0.707794
0.095661 0.196118 0.975903 -0.416756 -0.882444 0.218188
-0.838578 -0.008627 0.544713 -0.52295 -0.267465 -0.809311
0.572619 0.55418 0.604146 0.349994 -0.831643 0.431131
-0.894845 0.161535 -0.416124 -0.380421 -0.763671 0.521619
-0.371146 0.202303 0.906268 -0.507123 -0.861737 -0.015321
0.658791 -0.128626 -0.741249 0.260671 -0.885217 0.385283
-0.993027 0.090193 -0.075912 -0.100584 -0.312389 0.944614
-0.885378 0.445044 0.13432 0.031517 -0.23081 0.972488
-0.314615 0.831985 -0.456967 0.468049 0.554793 0.687848
0.953272 0.238946 -0.184873 -0.292388 0.575653 -0.763632
0.753306 -0.49669 0.43108 -0.615207 -0.300472 0.72886
-0.061052 -0.556549 -0.828568 0.998101 -0.040849 -0.046106
-0.119013 0.949658 -0.289804 -0.94359 -0.017346 0.330663
-0.890891 -0.286855 0.352176 0.224699 -0.952158 -0.207138
0.240667 0.949601 -0.200843 0.954958 -0.26867 -0.125983
-0.800167 0.589636 -0.109825 -0.257456 -0.172286 0.950807
-0.015014 0.675935 0.736808 0.257829 -0.709355 0.656003
0.785916 0.115833 -0.607386 -0.604145 0.353068 -0.714389
-0.806553 -0.329219 0.491006 -0.398962 -0.309773 -0.863058
0.067014 0.99219 -0.105202 -0.180943 0.115776 0.976655
-0.896855 -0.43959 -0.049117 -0.276779 0.471106 0.837528
0.177683 -0.945524 0.272787 0.970038 0.12161 -0.210326
0.77541 -0.248308 0.580588 -0.524659 -0.764982 0.373543
0.356137 -0.762783 -0.539749 0.463923 -0.357071 0.810725
-0.162855 -0.10309 -0.98125 -0.36291 -0.918548 0.156733
0.264685 0.135005 0.954838 -0.533131 -0.804589 0.261548
-0.333473 -0.791777 -0.511746 0.162373 -0.582942 0.796124
0.411336 -0.741472 -0.530115 0.009733 0.585136 -0.810877
-0.907403 -0.353563 0.227182 -0.080875 0.677379 0.731174
-0.905755 0.085707 0.415045 -0.422903 -0.119054 -0.89832
-0.316819 0.94797 -0.031278 0.791826 0.282501 0.541485
0.895664 -0.270853 0.352738 -0.361163 0.01984 0.932292
0.521172 0.122753 0.844578 -0.578069 -0.677256 0.455149
-0.548393 0.742193 -0.385246 -0.203034 -0.565091 -0.799656
-0.863873 0.489834 -0.117415 -0.318861 -0.71224 -0.625334
0.874419 -0.473428 0.106099 0.087685 0.369291 0.925168
0.316278 -0.533003 0.784778 -0.848266 -0.529278 -0.017608
0.313435 -0.938438 0.14523 0.860445 0.345364 0.374644
-0.916283 -0.358991 0.177622 -0.130535 0.686908 0.714924
-0.918176 -0.027711 0.395202 -0.02685 -0.990905 -0.131862
0.554419 0.652296 -0.516845 0.818393 -0.540122 0.196217
-0.275455 -0.026065 0.96096 -0.492918 -0.85439 -0.164466
-0.195524 0.903647 -0.381042 0.036081 -0.38165 -0.923603
0.766599 0.484614 -0.421278 0.539639 -0.130639 0.831699
0.614701 0.25249 -0.747255 0.788021 -0.237583 0.567959
-0.908391 0.211251 0.360831 0.362953 -0.030043 0.931323
0.997774 0.066656 0.001827 -0.002436 0.009057 0.999956
0.720127 -0.681936 0.127986 0.09189 -0.089101 -0.991775
-0.904671 -0.332352 0.266668 -0.3451 0.204367 -0.916046
0.08828 0.984957 -0.148557 -0.877221 0.006221 -0.480048
-0.876721 0.24586 0.413416 -0.467608 -0.234261 -0.852329
-0.191398 0.961804 0.195706 0.733311 0.007594 0.679851
0.326579 0.884695 0.332658 -0.551284 -0.107593 0.827351
0.792935 0.395533 0.463473 -0.210446 0.89163 -0.400884
-0.698655 -0.055919 -0.71327 0.683475 -0.346912 -0.642273
0.507601 -0.451832 0.733614 -0.374345 -0.882552 -0.284547
0.253879 -0.688304 0.679547 0.379692 -0.575249 -0.724515
-0.361465 0.909111 0.207027 0.83122 0.414791 -0.370165
-0.668501 0.734233 -0.118355 -0.414742 -0.235951 0.878815
0.074876 0.532078 0.843378 -0.229861 -0.813767 0.533804
0.880028 -0.198627 0.431391 -0.448546 -0.049118 0.892409
0.879555 -0.054589 -0.472656 -0.38652 0.497324 -0.776705
0.893441 0.208874 -0.397663 -0.444859 0.288938 -0.847712
-0.286095 0.326544 0.900843 -0.889905 -0.439124 -0.123444
0.975993 0.186446 -0.112586 -0.151765 0.952934 0.262458
-0.992977 -0.002261 -0.11828 -0.104131 -0.457776 0.882948
-0.088666 -0.214404 0.972712 -0.620583 -0.751965 -0.222316
-0.771316 0.561153 -0.300298 -0.478818 -0.200787 0.854645
0.629658 -0.62264 0.464599 -0.772651 -0.43964 0.457963
-0.642335 -0.109854 0.75851 0.091408 -0.993591 -0.066493
0.47643 0.864386 0.160788 -0.768648 0.498276 -0.401126
0.383699 0.746483 -0.543635 0.645747 -0.637722 -0.419907
-0.240923 -0.907554 -0.343949 0.800348 0.014683 -0.599356
-0.114029 0.274707 0.954743 -0.899192 -0.437169 0.018392
-0.527981 0.83179 -0.171354 -0.593966 -0.217461 0.774542
0.299801 0.90607 -0.298591 -0.867088 0.128273 -0.481357
-0.013173 0.850613 0.525626 0.975212 -0.105191 0.19467
-0.842067 -0.135894 -0.521974 -0.400072 -0.491694 0.773421
-0.570544 0.019844 0.821027 0.24019 -0.951966 0.18992
-0.085401 0.948836 -0.304002 0.982596 0.029689 -0.18337
0.802683 -0.064585 -0.592899 -0.518355 0.416127 -0.747092
0.555983 -0.596064 0.579302 -0.81871 -0.513057 0.257851
-0.044962 0.838529 0.542998 0.574543 -0.422952 0.700722
0.918586 -0.224161 -0.325501 0.274268 0.954554 0.116634
0.194542 0.116441 0.973958 -0.552475 -0.807446 0.206888
-0.015056 0.885107 -0.465144 -0.83429 0.245288 0.493755
0.202395 -0.416865 -0.886149 0.001063 -0.904782 0.425873
0.174911 0.926699 0.332618 -0.607988 -0.164063 0.77681
0.987567 -0.138892 0.073619 -0.050061 0.166059 0.984844
0.702988 0.564507 0.432596 0.614138 -0.175082 -0.769533
-0.210532 0.837883 -0.503616 0.713557 0.483842 0.506689
-0.072185 0.99648 0.042622 -0.298749 -0.062373 0.952291
0.553323 -0.592574 -0.585397 0.322465 -0.4956 0.806472
-0.864029 0.492081 0.106351 -0.298853 -0.331328 -0.894935
-0.935064 -0.174731 -0.308423 -0.353977 0.506568 0.786187
-0.440506 -0.290571 0.849426 -0.690327 -0.495259 -0.527416
-0.657296 0.215853 0.72206 0.107479 -0.921463 0.373303
0.089432 -0.651859 -0.753049 -0.759928 0.444083 -0.474658
-0.890059 0.13566 -0.435191 -0.395879 -0.70335 0.590406
-0.66613 -0.39904 0.63011 0.210688 -0.911106 -0.354257
0.459346 0.721895 0.51756 -0.336695 -0.397683 0.853513
-0.933485 0.33117 -0.137597 -0.051498 -0.503503 -0.862458
0.788274 -0.373764 0.488799 -0.365912 0.353921 0.860726
-0.51201 0.201635 0.834978 -0.555032 -0.819543 -0.142439
0.439312 0.838649 -0.321983 0.581432 -0.538668 -0.609732
-0.975726 -0.059199 0.210838 -0.050524 -0.875942 -0.479762
0.241118 -0.677086 -0.695282 0.31972 -0.621008 0.715632
0.709141 -0.585324 0.393083 -0.603587 -0.21582 0.767532
0.110912 0.991227 -0.071878 -0.080781 0.081076 0.993428
0.745937 0.561152 -0.35873 -0.196704 0.700213 0.686302
0.795875 -0.579845 0.174248 -0.366724 -0.232665 0.900767
0.927326 -0.367078 0.072933 0.146882 0.536207 0.831209
0.81455 -0.064331 0.576515 0.218619 -0.886511 -0.407805
0.662175 -0.321891 -0.676691 -0.644698 0.215573 -0.733412
-0.237555 0.254178 0.937529 -0.384868 -0.910798 0.149411
-0.128108 0.987878 -0.087664 -0.051725 0.081617 0.995321
-0.907375 -0.356452 -0.222736 -0.298247 0.172612 0.938751
0.593727 0.78005 -0.197508 0.80344 -0.561137 0.199023
0.930233 0.103744 -0.352 -0.36649 0.311669 -0.876668
0.333108 0.02114 -0.942652 -0.942296 -0.027967 -0.333609
-0.008189 0.806966 0.590541 0.850108 -0.305349 0.429043
0.142338 0.215657 0.966041 -0.931084 -0.302025 0.204611
-0.267613 0.876159 0.40091 -0.735636 -0.454512 0.502254
0.612057 -0.533711 0.583557 0.151226 0.803293 0.576066
0.283199 -0.152048 0.946931 -0.431515 -0.901967 -0.015775
0.593835 -0.594403 -0.542259 0.227289 -0.522578 0.821737
0.763573 -0.577697 -0.288482 -0.138971 -0.583312 0.800271
0.946071 0.297678 -0.127818 0.241999 -0.387081 0.889722
-0.237713 0.784769 0.57239 0.667897 -0.295809 0.682943
0.711227 -0.699361 -0.071062 -0.507202 -0.58053 0.63697
-0.430562 0.82815 -0.358865 0.873074 0.48296 0.067018
0.869627 0.324574 -0.372021 0.231794 -0.933728 -0.272806
0.767387 -0.633743 0.097393 -0.265455 -0.175751 0.947969
-0.836915 0.381893 -0.392085 -0.546738 -0.549913 0.631406
0.869661 0.472305 0.143586 0.194686 -0.060859 -0.978975
0.451301 0.450702 -0.770192 -0.769229 0.633978 -0.079744
-0.091753 0.554558 0.827071 -0.771595 -0.564624 0.292986
-0.811619 -0.026586 -0.583581 0.378202 -0.785274 -0.490212
0.122079 0.849737 -0.51288 -0.911118 -0.109007 -0.397472
-0.398227 0.354633 0.845962 -0.068521 -0.931167 0.358096
0.397973 -0.619529 0.67661 -0.907879 -0.371933 0.193446
0.314971 -0.451871 -0.834629 -0.286981 0.792881 -0.537569
-0.046998 0.877507 0.477254 -0.635528 -0.394876 0.663458
0.971322 0.174628 -0.161368 -0.221602 0.418888 -0.880582
-0.212687 0.898194 -0.384723 0.173978 0.42225 0.889627
0.270759 0.832436 -0.483468 0.95764 -0.284077 0.047186
0.545416 -0.756115 0.36168 0.035388 -0.410356 -0.911239
-0.389782 -0.333751 0.8583 0.186054 -0.941336 -0.281547
-0.426355 0.90166 -0.072332 -0.087962 0.038258 0.995389
-0.248706 -0.202097 -0.94726 0.950927 -0.236809 -0.199146
-0.918176 -0.027711 0.395202 -0.02685 -0.990905 -0.131862
-0.065448 0.661911 -0.74672 0.663011 -0.530411 -0.528281
0.61005 0.392698 0.688206 0.000651 -0.868797 0.495169
-0.903313 -0.128711 0.409216 -0.118461 -0.841991 -0.526325
0.896033 -0.325109 -0.302373 -0.192309 0.329646 -0.924311
0.745771 -0.087302 -0.660457 -0.404619 -0.846938 -0.344933
0.888371 0.341296 -0.307107 -0.43897 0.827405 -0.350296
0.513869 0.077266 -0.854382 -0.762596 -0.415013 -0.496197
0.627393 0.40069 0.667702 0.676269 -0.705462 -0.212093
0.065141 0.755303 0.652131 0.924197 -0.292121 0.246019
-0.626758 0.671197 -0.395812 0.748582 0.659676 -0.066718
-0.568948 -0.379313 0.729672 -0.234741 -0.775455 -0.586147
0.400073 -0.659065 -0.636848 -0.83106 0.03206 -0.555257
0.618336 0.783979 -0.055106 -0.23377 0.116528 -0.965283
0.473199 -0.804327 0.359361 0.182752 0.488673 0.853112
0.277156 0.057607 0.959096 -0.67528 -0.698416 0.23709
0.369193 -0.585852 0.721439 -0.800149 -0.595233 -0.073893
-0.471953 0.617435 -0.629313 -0.861597 -0.171739 0.477657
0.601584 -0.761451 -0.241431 -0.368212 -0.532546 0.762111
0.283313 -0.765982 0.577066 -0.926198 -0.374629 -0.042551
-0.754256 0.174093 0.633081 -0.57801 -0.633437 -0.514454
-0.215372 0.971381 -0.100171 0.376189 0.177191 0.909442
0.689353 0.471533 0.549953 0.081021 0.704211 -0.705353
-0.865599 0.036628 0.499396 -0.390812 -0.672933 -0.628034
0.938393 -0.16675 0.302679 -0.302125 0.029304 0.952818
0.951309 -0.209142 0.22643 -0.292033 -0.846589 0.444976
-0.210532 0.837883 -0.503616 0.713557 0.483842 0.506689
0.20262 -0.73492 0.647177 0.179003 -0.621953 -0.76232
0.940046 0.166082 0.297879 -0.341001 0.442901 0.829191
-0.926006 0.36604 0.092343 0.091333 -0.020117 0.995617
0.093318 0.994319 -0.051203 -0.260996 0.074059 0.962495
0.503976 -0.589862 0.630929 -0.831152 -0.132509 0.540026
-0.850165 0.393023 0.350362 0.470773 0.269432 0.840107
0.881434 0.052564 -0.469373 -0.301378 0.827768 -0.473257
0.00108 0.93015 0.367178 -0.573935 -0.300106 0.761929
0.193917 0.072502 0.978335 -0.573221 0.817683 0.053022
0.098477 0.774956 0.624297 0.877878 0.22779 -0.421239
0.687932 0.286342 0.666902 0.667149 0.112313 -0.736409
-0.068991 0.911148 -0.406263 -0.707936 0.242213 0.663445
-0.256871 -0.710589 -0.655043 0.752996 0.277716 -0.596549
0.317462 -0.948271 0.000643 0.240897 0.079992 -0.967249
-0.898405 0.028831 0.43822 -0.045008 -0.998632 -0.02657
0.141749 -0.940599 -0.308513 0.183549 0.33123 -0.925525
0.796257 0.197351 0.571864 0.054052 0.918304 -0.392169
0.285563 -0.704646 0.64956 -0.889478 -0.447191 -0.094077
-0.333161 -0.847373 0.413476 0.165125 0.379315 0.910414
0.536826 -0.474991 0.697281 -0.826395 -0.462528 0.321153
-0.172809 0.508164 0.843745 -0.210878 -0.855858 0.472269
0.457752 0.770881 0.442951 -0.770998 0.592285 -0.23401
0.557875 0.681766 0.473255 0.347858 -0.709818 0.612498
0.410874 0.891961 -0.188648 -0.50762 0.051939 -0.860014
0.5793 -0.265597 0.77063 -0.724341 -0.601322 0.337259
-0.482023 0.502002 0.718085 -0.37764 -0.858584 0.346727
-0.493236 -0.162587 0.854567 -0.119483 -0.960405 -0.251686
-0.744038 0.652186 -0.145124 -0.658417 -0.678794 0.325155
-0.201044 -0.412226 0.888623 -0.591942 -0.671663 -0.445502
-0.160062 0.69455 0.701413 -0.632559 -0.617673 0.467279
0.144471 -0.410718 0.900244 -0.924322 -0.380768 -0.025383
0.222438 0.922382 0.315803 -0.968663 0.172373 0.178827
-0.638852 0.10889 0.761585 -0.131494 -0.990821 0.031363
-0.962517 -0.008782 0.27108 -0.062531 -0.965364 -0.253303
-0.267203 0.836695 -0.478063 -0.923275 -0.080205 0.375673
-0.740334 0.655671 -0.148327 -0.639769 -0.619464 0.454929
0.318422 -0.150657 0.935901 0.509792 -0.805151 -0.303056
0.867463 -0.170099 0.46752 -0.467244 0.04418 0.883025
0.569813 0.756334 -0.321361 0.821004 -0.540876 0.182772
-0.296531 0.953543 0.053146 -0.87114 -0.292872 0.394134
0.440273 0.543643 0.714571 -0.532941 -0.482261 0.695267
-0.963597 -0.13286 -0.232013 -0.170653 -0.362383 0.916273
0.722723 -0.643012 -0.253389 -0.368886 -0.668922 0.645342
-0.108622 0.689488 -0.716105 0.984052 0.17666 0.020829
0.542408 -0.773009 0.329015 0.385686 0.577043 0.719908
0.728902 0.301425 0.61469 -0.077408 -0.855815 0.511456
-0.258509 0.828037 0.497522 0.955204 0.142293 0.259497
-0.53581 0.771806 -0.342379 0.764279 0.270992 -0.585185
-0.210099 -0.492178 -0.84476 0.951466 0.095812 -0.29246
0.522157 0.453186 -0.722479 -0.842084 0.408141 -0.352586
-0.376995 0.480726 0.791693 0.152565 -0.810855 0.565011
0.093774 -0.689061 0.718611 0.960576 0.252366 0.116639
-0.999619 0.025654 0.010112 -0.011178 -0.041748 -0.999065
-0.267508 0.578239 -0.770765 -0.695688 -0.669363 -0.260714
0.662175 -0.321891 -0.676691 -0.644698 0.215573 -0.733412
0.785916 0.115833 -0.607386 -0.604145 0.353068 -0.714389
-0.699259 0.077536 0.710651 -0.157652 -0.986351 -0.047509
0.313972 0.439051 0.841817 -0.747019 -0.433004 0.504449
0.750159 0.649218 -0.125608 -0.601333 0.590742 -0.537981
-0.935818 -0.132299 0.326715 -0.07326 -0.833649 -0.547415
-0.200067 0.973668 -0.109293 -0.212327 0.065812 0.97498
-0.582007 0.728839 -0.360642 -0.17539 -0.545564 -0.819511
0.505101 -0.085588 -0.858806 -0.862389 -0.010818 -0.50613
0.554391 0.755744 0.348571 -0.265147 -0.236617 0.934724
-0.947127 -0.300175 0.113344 -0.122075 0.663796 0.737884
-0.011659 0.753578 -0.657255 -0.973261 -0.159353 -0.165441
0.055771 0.78535 0.616534 0.745232 -0.443689 0.497764
0.423786 -0.790929 -0.441403 -0.453109 -0.60709 0.65279
-0.506581 0.100629 0.8563 -0.347377 -0.93281 -0.095886
0.89345 0.324209 0.310863 -0.159451 -0.418081 0.894307
-0.460908 0.867015 -0.189336 0.276732 0.343126 0.897599
0.656808 0.703944 0.270306 -0.336139 -0.047552 0.940611
0.132016 0.29512 0.946296 0.88772 -0.459966 0.019605
0.75939 -0.647301 0.06579 -0.387738 -0.369029 0.844676
0.291092 0.891497 -0.347131 -0.816463 0.042371 -0.575842
-0.45501 -0.800681 -0.389714 0.771849 -0.572869 0.275809
0.545193 -0.482623 0.685449 0.783062 0.585108 -0.210859
0.968656 0.183417 0.167522 0.24516 -0.81455 -0.525742
0.004454 0.976262 -0.216547 0.100672 0.215011 0.971409
0.825868 -0.13812 0.546687 0.030862 -0.95701 -0.28841
0.641631 0.742657 -0.191755 0.644804 -0.386881 0.659205
-0.385123 -0.216252 0.897171 -0.465433 -0.793954 -0.391166
-0.385035 0.919683 0.077015 0.858467 0.387538 -0.335932
0.195057 0.838405 0.50895 0.837681 0.127495 -0.53107
-0.867183 0.300255 -0.397291 -0.446192 -0.114187 0.887623
-0.056062 0.559258 0.827096 0.007074 -0.828156 0.560454
-0.414807 0.909634 0.022381 0.501343 0.207955 0.839887
-0.644483 0.533815 -0.547433 -0.412308 0.360323 0.836762
-0.35176 0.563386 0.747569 -0.094406 -0.815888 0.57045
0.549031 0.816808 -0.177173 0.835462 -0.542386 0.088443
0.47147 0.591626 0.653984 0.110815 -0.775444 0.621616
-0.348824 -0.82744 -0.440075 0.740975 -0.531007 0.411082
0.406798 -0.652556 0.639285 -0.801742 -0.590462 -0.092545
-0.970963 0.230801 -0.062944 -0.198585 -0.924312 -0.3259
0.952768 -0.246032 -0.178051 0.177584 0.926926 -0.330564
0.162944 0.959284 -0.230701 -0.91567 0.059956 -0.397433
-0.157567 0.911926 0.378898 0.136518 -0.359891 0.922952
0.714468 -0.690221 0.114587 -0.323746 -0.471317 -0.820396
-0.764193 0.492336 -0.416671 0.2074 -0.424132 -0.881532
0.951282 -0.207329 0.228204 -0.305651 -0.536923 0.786315
0.703528 -0.670206 -0.236374 -0.411348 -0.655258 0.633586
-0.931576 0.059225 0.358691 -0.28153 -0.741772 -0.608701
-0.001124 0.994647 -0.103329 -0.999165 -0.005339 -0.040527
-0.708575 -0.702711 0.064178 0.701996 -0.692773 0.16513
-0.480998 -0.739802 0.470461 0.566306 -0.671819 -0.477449
-0.96655 0.146372 0.210609 -0.254178 -0.656391 -0.710313
-0.78522 -0.532028 0.31682 0.139204 -0.650218 -0.746886
-0.730969 0.568426 -0.377593 -0.092111 -0.630443 -0.770751
0.766154 0.635796 0.093659 0.11372 -0.277564 0.953953
-0.062332 0.724499 0.686452 0.75938 -0.411891 0.503674
0.825044 -0.334585 0.455364 0.079206 -0.729423 -0.679463
0.396918 0.917456 -0.027023 -0.38066 0.137752 -0.914397
-0.919515 0.097928 0.380661 -0.022903 -0.98017 0.196833
0.905298 -0.400925 0.140338 -0.414336 -0.760657 0.499727
-0.95443 -0.279217 0.105353 0.157902 -0.172923 0.972195
-0.936688 -0.208398 -0.281401 -0.082289 0.91212 -0.40158
-0.002338 0.816561 -0.577255 -0.984257 0.10014 0.14564
-0.323607 -0.337301 0.884028 -0.546418 -0.696141 -0.465634
-0.710576 0.632252 -0.308771 -0.624882 -0.365338 0.689964
-0.320763 -0.868068 0.378905 -0.483686 -0.193823 -0.853511
-0.361465 0.909111 0.207027 0.83122 0.414791 -0.370165
0.317184 -0.166981 -0.933548 0.938491 -0.086403 0.334318
-0.207176 0.943373 0.259085 0.688135 -0.047718 0.724011
-0.855601 0.458614 -0.240045 0.037654 -0.407363 -0.91249
0.64612 0.743213 -0.173676 0.761926 -0.641414 0.089761
-0.964041 -0.241823 0.110211 0.121954 -0.034093 0.99195
0.873721 0.473527 -0.111281 -0.301361 0.706529 0.640312
0.210944 0.683022 0.699274 -0.878649 -0.180988 0.441836
0.848389 -0.475425 0.23283 -0.130756 0.237997 0.962425
0.867454 0.053773 0.494603 0.331018 -0.804547 -0.493083
0.82451 -0.03825 0.564553 -0.559565 -0.203368 0.803447
-0.833016 0.429594 -0.348617 -0.553231 -0.641642 0.531254
0.02759 0.977603 0.208643 -0.727868 -0.123417 0.67452
0.097673 0.928178 0.359091 -0.821812 0.27873 -0.496926
0.633121 0.338233 0.696245 -0.697139 -0.141732 0.702787
-0.53581 0.771806 -0.342379 0.764279 0.270992 -0.585185
-0.520759 -0.207848 -0.828015 0.036948 -0.974488 0.221378
-0.43088 0.668363 0.606328 0.380412 -0.474752 0.793661
-0.112377 0.821896 -0.558443 -0.963649 -0.227234 -0.140518
-0.552326 0.596659 -0.58218 -0.791113 -0.595339 0.140399
-0.346491 -0.822558 0.450934 0.791735 -0.514251 -0.329699
0.903202 0.206399 0.376331 -0.429145 0.418381 0.800495
-0.567897 -0.823027 -0.010916 0.609789 -0.411779 -0.677197
-0.311376 0.897483 0.31236 0.924291 0.209673 0.318941
-0.005648 -0.894573 -0.446885 0.269366 0.429013 -0.8622
0.792574 -0.609262 0.025047 -0.569039 -0.753761 -0.328694
0.504523 0.626031 0.594594 -0.508654 -0.340954 0.790583
-0.045738 0.998906 -0.0097 0.242979 0.020543 0.969814
-0.702995 0.710544 -0.030436 -0.189266 -0.14566 0.971062
-0.525854 0.342886 -0.7784 -0.784846 0.15715 0.599434
-0.00455 0.198729 -0.980044 -0.145803 0.969449 0.197258
-0.169263 0.985298 0.023238 0.648216 0.093534 0.755691
0.103325 0.985656 0.133438 -0.278198 -0.100164 0.955286
0.470469 -0.324568 0.820559 -0.147946 -0.94575 -0.289261
0.543682 -0.033986 -0.838602 -0.622823 0.653421 -0.430269
-0.364242 0.438385 0.821674 -0.173075 -0.898777 0.402798
-0.206616 0.912006 -0.354337 -0.866075 -0.001983 0.499909
0.438913 0.134243 0.888445 -0.891851 -0.055243 0.448943
-0.050039 0.864775 0.49966 0.998746 0.043988 0.023889
-0.992961 -0.117253 -0.016739 0.112843 -0.979468 0.167062
-0.513398 0.541235 -0.665948 -0.497771 -0.819957 -0.282656
0.315492 0.745278 0.587389 0.901064 -0.429397 0.060848
0.749023 -0.647795 0.139017 -0.604553 -0.582401 0.543438
-0.442763 -0.487731 -0.752382 0.736239 0.281183 -0.615539
0.58305 -0.781238 0.222979 -0.73051 -0.384015 0.564702
0.905833 -0.233665 0.353365 -0.37148 -0.839082 0.397421
0.421063 0.172468 -0.890483 -0.870099 0.3541 -0.342843
0.21293 -0.720407 0.660056 -0.773159 -0.537276 -0.336984
-0.237713 0.784769 0.57239 0.667897 -0.295809 0.682943
-0.115978 0.846342 -0.519859 0.505074 0.500923 0.702833
0.962991 -0.125118 0.238738 -0.263243 -0.246279 0.932765
-0.44328 -0.470134 -0.763202 0.229225 0.763661 -0.603554
0.070787 0.978353 -0.194458 0.116369 -0.201716 -0.972507
-0.299592 -0.782967 0.545167 -0.087033 -0.546602 -0.832857
-0.603975 0.788055 -0.119097 -0.033763 -0.174596 -0.984062
-0.781632 0.227707 0.58069 -0.555147 -0.678406 -0.481224
0.709886 0.307125 0.633826 0.05984 0.870363 -0.488761
0.18522 0.530387 0.827274 0.957489 -0.286858 -0.030462
-0.1844 0.646299 -0.740469 -0.910712 0.170949 0.376004
-0.437261 0.409376 0.800758 0.035836 -0.881751 0.470351
-0.221161 0.975221 -0.005595 -0.91371 -0.205199 0.350753
-0.058642 0.521815 0.851041 -0.439938 -0.778768 0.447186
0.059956 0.843 -0.534562 -0.663274 0.433851 0.609787
0.119876 0.370583 -0.921031 -0.90915 -0.331727 -0.251802
0.298193 -0.634045 0.71349 -0.897135 -0.441417 -0.017322
-0.227439 0.9616 0.153615 0.441769 -0.038695 0.896295
-0.083396 0.651163 -0.754343 0.093885 0.758747 0.644585
-0.381395 0.639968 0.667068 0.750023 -0.207597 0.627988
-0.759831 0.641869 -0.103255 -0.312731 -0.221624 0.923625
-0.681482 0.725596 -0.095358 -0.518078 -0.386289 0.763136
0.385155 -0.834639 -0.393744 0.538093 -0.143518 0.830577
0.145306 0.422997 0.894405 -0.938572 -0.227053 0.259863
-0.983692 0.177826 0.026969 -0.045804 -0.392683 0.918532
0.870304 -0.486918 0.074034 -0.07185 0.023191 0.997146
0.419941 -0.783311 0.458337 0.660998 0.610043 0.436955
-0.663059 -0.081827 0.744082 0.342181 -0.91721 0.204055
0.038316 0.974503 -0.221081 0.055233 0.21884 0.974196
-0.875963 -0.46609 0.124293 -0.181551 0.079829 -0.980136
0.735179 -0.314532 -0.600485 -0.441698 0.449695 -0.776323
0.19728 -0.102189 -0.975007 -0.966939 0.143645 -0.210703
0.308559 -0.913666 -0.264586 0.602182 -0.027689 0.797878
-0.08647 -0.779337 0.620611 0.513216 0.499082 0.698232
-0.500229 -0.108462 0.859073 -0.836088 0.318565 -0.446624
-0.641958 0.736008 -0.2149 -0.634043 -0.35198 0.688549
-0.458551 0.722698 0.517145 0.26389 -0.444948 0.855795
-0.317804 0.321771 -0.891888 -0.699398 -0.71468 -0.008624
-0.859372 0.389858 -0.330893 -0.048537 -0.706366 -0.706181
-0.692993 0.312864 -0.649521 -0.568596 0.31671 0.759206
0.701489 -0.704323 0.108829 -0.60572 -0.508753 0.611779
-0.88973 0.451058 -0.070195 -0.334881 -0.540447 0.771863
-0.117398 0.976642 -0.179967 0.299391 0.207596 0.931273
-0.211814 -0.73452 -0.644682 0.589439 -0.622181 0.515221
0.866097 -0.341146 0.36537 -0.47536 -0.335992 0.813106
-0.735086 -0.494131 0.464199 -0.021174 -0.667621 -0.7442
0.573526 0.805579 0.148699 0.817805 -0.57359 -0.046812
-0.266261 0.555478 0.78775 0.963797 0.165443 0.209103
-0.577485 -0.22234 0.785543 -0.666177 -0.42788 -0.610842
0.046526 0.498164 0.865834 0.636276 -0.682967 0.35876
0.711605 0.572744 -0.406919 -0.266037 0.755711 0.598437
-0.223694 -0.441137 0.869114 -0.627403 -0.617222 -0.474766
0.994174 0.10716 0.011641 -0.038741 0.254442 0.966312
0.517756 0.845693 0.129356 -0.346008 0.06871 0.935712
0.870304 -0.486918 0.074034 -0.07185 0.023191 0.997146
-0.131829 -0.713404 0.688241 0.531489 -0.636936 -0.55842
-0.532036 0.179429 0.827492 -0.784662 -0.471735 -0.402209
0.677794 -0.642485 0.357504 -0.219105 -0.64064 -0.735917
-0.174034 0.835475 0.521243 0.899342 -0.080761 0.429723
0.812231 -0.379399 -0.443098 0.342491 -0.304727 0.88873
0.578421 -0.55333 -0.599378 -0.402912 0.445091 -0.799722
0.777375 -0.614906 0.132584 0.321765 0.569822 0.756155
0.58229 0.470861 -0.662743 0.784408 -0.539621 0.305799
-0.684698 0.33883 -0.645277 -0.727987 -0.275451 0.627824
0.729614 -0.605806 0.317275 -0.676193 -0.569816 0.466982
-0.21345 0.567856 0.79497 0.398245 -0.69247 0.601569
0.882155 -0.271606 -0.384749 -0.311677 0.27577 -0.90929
0.749741 0.33127 -0.572842 0.658666 -0.456813 0.597896
-0.237555 0.254178 0.937529 -0.384868 -0.910798 0.149411
0.980288 -0.031112 0.19511 -0.196816 -0.240256 0.950548
0.477929 -0.448757 0.755116 -0.782665 -0.607815 0.134147
-0.904528 -0.065512 0.421352 -0.003976 -0.986789 -0.161961
0.095712 -0.182045 0.978621 -0.72608 -0.685288 -0.056466
0.397292 -0.621816 0.67491 -0.905169 -0.386609 0.176641
0.619044 0.016547 -0.785182 -0.148181 -0.97936 -0.137466
0.750159 0.649218 -0.125608 -0.601333 0.590742 -0.537981
0.628858 -0.519321 0.578656 0.233456 -0.583777 -0.777626
-0.539533 -0.545761 0.641131 -0.096017 -0.716621 -0.690823
0.859917 -0.491813 -0.136611 -0.31138 -0.717508 0.623077
0.218891 0.693945 0.68595 -0.749833 0.56947 -0.336831
0.89115 -0.378807 -0.249714 -0.206694 0.150997 -0.966684
-0.66613 -0.39904 0.63011 0.210688 -0.911106 -0.354257
0.178802 0.452115 0.873854 -0.935956 -0.195672 0.292746
-0.937189 0.044604 -0.345959 -0.347689 -0.039583 0.936774
0.674786 -0.649753 0.349978 -0.73708 -0.617179 0.275323
-0.03887 -0.546884 -0.836305 -0.971198 0.217574 -0.097138
0.61005 0.392698 0.688206 0.000651 -0.868797 0.495169
-0.589834 0.616161 0.521958 0.648723 -0.023365 0.760666
0.577735 0.131958 0.805487 -0.088756 0.99115 -0.098714
0.509341 0.090206 -0.855824 -0.751445 -0.438057 -0.493392
0.866369 0.499025 -0.019483 0.293723 -0.47761 0.828019
-0.958228 0.2252 -0.176308 0.061555 -0.439613 -0.896075
-0.656834 0.414743 -0.629729 -0.724213 -0.114439 0.680014
-0.873951 0.485875 0.011615 -0.31912 -0.591704 0.740303
-0.781632 0.227707 0.58069 -0.555147 -0.678406 -0.481224
0.945055 -0.31159 -0.09891 -0.098576 0.016863 -0.994987
-0.82876 0.40145 -0.389865 0.003851 -0.692572 -0.721338
0.150068 0.986697 -0.062524 -0.601594 0.141316 0.786203
-0.142484 0.850055 0.507055 0.977434 0.040124 0.207396
0.875744 0.480895 -0.042575 0.465365 -0.817402 0.339543
-0.705279 0.451264 -0.546756 -0.165708 -0.854813 -0.491767
0.185652 0.97097 0.150834 -0.49096 -0.041307 0.870202
-0.441078 0.52491 -0.727956 -0.775403 -0.631298 0.014614
0.702447 0.507866 0.498639 0.241227 -0.829012 0.504529
0.821656 -0.542643 0.17441 -0.358942 -0.254916 0.897874
-0.03887 -0.546884 -0.836305 -0.971198 0.217574 -0.097138
-0.447758 0.491519 -0.746942 -0.886982 -0.349756 0.301553
0.938374 -0.345421 -0.011782 0.194254 0.498905 0.844606
-0.841326 0.290743 -0.455675 0.198782 -0.617517 -0.761024
0.494084 0.825325 0.273348 -0.743224 0.564086 -0.359757
0.746555 0.539444 0.389429 -0.323848 0.805938 -0.495565
-0.593473 0.804849 0.002746 0.002711 -0.001412 0.999995
0.784876 0.619058 -0.027131 0.597841 -0.745009 0.295885
0.01637 -0.554817 -0.831811 0.359331 -0.773079 0.522714
0.271859 0.245987 0.930367 -0.407658 -0.846312 0.342884
-0.262249 0.817374 -0.512959 0.891423 0.408776 0.195624
0.779848 -0.105582 -0.617001 0.238437 -0.861263 0.448748
0.825061 -0.042866 0.563416 -0.418805 -0.715753 0.558838
-0.154485 -0.348025 0.924669 -0.429957 -0.818953 -0.380069
0.522244 0.020044 -0.852561 -0.815633 -0.280166 -0.506211
-0.519648 -0.090305 0.849595 0.194951 -0.980699 0.015
0.750239 -0.657186 -0.072444 -0.259423 -0.393384 0.882014
-0.548249 -0.706686 0.447233 0.739987 -0.160744 0.653131
-0.59412 0.529973 -0.605103 -0.72137 -0.683868 0.109318
0.096532 -0.674422 0.732008 0.043032 -0.731927 -0.680022
0.776662 -0.57564 0.255804 -0.003672 0.401947 0.915656
-0.590409 0.199358 -0.782095 -0.79847 -0.285633 0.529962
-0.54581 0.362136 0.755611 -0.428161 -0.8957 0.119997
0.859921 0.454216 0.232861 -0.086141 -0.320523 0.943316
-0.517387 -0.179673 0.836677 0.34622 -0.938068 0.01265
0.686336 0.241179 -0.686131 -0.21334 0.968676 0.127092
-0.908178 -0.246894 0.338017 0.134842 -0.937039 -0.322141
-0.686813 -0.337964 0.643481 -0.707819 0.109818 -0.697805
-0.204081 0.875555 0.437899 -0.813956 -0.400286 0.421007
-0.592771 -0.408441 0.694117 -0.708309 -0.145797 -0.690682
0.358431 0.41876 0.834367 -0.933179 0.186103 0.307476
0.069163 0.655451 0.752064 -0.751819 -0.461277 0.47116
0.029872 0.999491 0.01122 0.055426 -0.012864 0.99838
0.013834 0.933697 0.357796 0.333736 -0.341622 0.878587
0.862501 0.103845 -0.495286 -0.148767 0.987503 -0.05202
-0.307618 0.942015 0.134082 -0.383915 -0.251815 0.888369
0.160308 0.985711 -0.051718 -0.235293 0.089047 0.967837
-0.6527 0.406006 -0.639642 -0.750065 -0.227391 0.621044
0.967302 -0.149746 -0.204701 0.075415 0.94041 -0.331575
0.011859 0.794836 0.606708 -0.182129 -0.594884 0.782906
-0.698916 0.129661 0.703351 0.039338 -0.974971 0.218823
0.781207 -0.516647 0.350419 -0.538794 -0.274486 0.796467
0.509546 -0.841638 -0.178909 -0.807098 -0.539583 0.239673
-0.761592 -0.365591 0.535089 0.063469 -0.863791 -0.499837
0.889982 -0.412912 0.193486 -0.171009 0.09112 0.981047
-0.142607 0.931754 -0.333913 0.956379 0.216616 0.195999
0.014256 0.930825 0.365187 -0.063418 -0.363647 0.929375
0.663966 -0.731416 0.155499 -0.062101 0.153298 0.986227
-0.955205 -0.295811 0.008888 0.024023 -0.047572 0.998579
-0.966127 0.03431 -0.255774 -0.256182 -0.008007 0.966595
-0.192291 0.855478 -0.480814 0.876031 0.370451 0.308767
0.927484 0.203843 -0.313402 -0.364757 0.309497 -0.87816
-0.03756 0.149779 0.988007 0.221386 -0.962889 0.154388
0.746881 -0.126293 -0.652855 -0.533761 0.471664 -0.701877
-0.298299 -0.43243 0.850895 -0.334302 -0.787678 -0.517499
-0.161507 -0.675982 0.719002 -0.696085 0.594486 0.402557
0.760856 0.582219 -0.286565 0.243956 0.152573 0.957709
-0.907403 -0.353563 0.227182 -0.080875 0.677379 0.731174
0.295091 0.53784 -0.789714 0.898978 -0.436273 0.038792
0.930102 0.363156 -0.055019 0.086976 -0.072231 0.993588
-0.957889 0.115731 0.262784 -0.287121 -0.396437 -0.87201
-0.841098 0.388995 -0.375816 -0.007886 -0.703565 -0.710587
0.819238 0.537154 -0.200786 0.407419 -0.791597 -0.455395
-0.943201 0.331899 -0.014641 -0.052839 -0.10636 0.992923
0.88963 -0.44666 -0.095145 0.376804 0.600207 0.705528
0.76695 0.592088 0.247425 -0.484625 0.281688 0.828124
0.274939 0.088832 0.95735 -0.588496 -0.771862 0.240629
0.638162 -0.448816 -0.625551 -0.375519 0.527854 -0.761811
-0.740152 0.295895 0.603839 0.295362 -0.663665 0.687249
-0.583401 0.689304 -0.429538 -0.694079 -0.148486 0.704419
